# .PCD v0.7 - Point Cloud Data file format
VERSION 0.7
FIELDS x y z intensity
SIZE 4 4 4 4
TYPE F F F F
COUNT 1 1 1 1
WIDTH 1273
HEIGHT 1
VIEWPOINT 0 0 0 1 0 0 0
POINTS 1273
DATA ascii
17.463734 -0.28567961 69.569778 7
17.910391 -0.29897135 69.577789 7
18.209965 -0.38088298 69.511406 7
18.51499 -0.3786788 69.594002 7
18.966024 -0.39293021 69.542374 7
19.25841 -0.3701438 69.335785 7
20.28005 -0.38410696 69.398651 7
20.422974 -0.39243162 69.227646 7
21.126129 -0.38635051 69.485153 7
50.205925 -0.28825259 69.338242 8
55.707752 -0.34581688 69.484558 8.1094999
-10.935783 0.37423766 69.460716 6.1111112
-10.62143 0.35848525 69.442215 5.5
-10.15281 0.3466768 69.432587 5.75
-9.7700863 0.34549198 69.430054 5.5714288
-9.418025 0.32778487 69.403412 6
-8.9722719 0.3155145 69.4077 5.8571429
-8.5741215 0.29374003 69.367256 5.1538463
-8.2030983 0.29160389 69.416031 5.25
-7.7334557 0.26112857 69.457222 4.8333335
-7.3983798 0.26678717 69.437561 4.1666665
-6.9724269 0.24121159 69.43399 5.3636365
-6.5980377 0.24296153 69.424576 5.0714288
-6.1769814 0.23147672 69.403572 4.0769229
-5.7981453 0.21806218 69.376076 2.5454545
-5.4216104 0.2062068 69.341179 3.25
-5.0240779 0.19750509 69.470512 3
-4.6551018 0.1884418 69.45829 1.3333334
-4.1629715 0.17337425 69.422844 2
-3.7368188 0.15982452 69.387222 2.2
-3.3841236 0.14879608 69.355881 3.7142856
-2.9677508 0.13781759 69.370789 3.3076923
-2.5387104 0.12488016 69.435684 3
-2.1513491 0.11548151 69.434265 2.625
-1.8049642 0.097833112 69.392776 3.2884614
-1.3927264 0.084732443 69.379524 2.7692308
-0.92406726 0.077740379 69.380913 3.409091
-0.59276277 0.066507451 69.450096 4.0833335
-0.23613673 0.057030443 69.380936 3.75
0.20233341 0.048816733 69.483116 4.6999998
0.57580715 0.037604298 69.411446 5.0714288
1.0691345 0.022584938 69.401871 5
1.4523264 0.010493328 69.387024 4.7777777
2.3246324 0.00030910969 69.468262 5
16.304501 0.32892501 69.222832 7
-28.812902 0.78937316 69.201851 7
-28.567123 0.7792657 69.432854 7
-28.147179 0.77648735 69.217606 7
-27.950308 0.74798638 69.225182 7
-26.157303 0.75528443 69.270828 7
-25.563606 0.74981856 69.550522 7
-24.452353 0.79929924 69.378387 7
-24.266066 0.7303381 69.589287 7
-23.455376 0.70935535 69.44693 7
-22.140757 0.79970002 69.416328 4
-21.650503 0.77315223 69.420807 5
-21.364784 0.76114511 69.434441 5.6666665
-21.151424 0.77590644 69.415329 6
-20.662117 0.64095759 69.408867 7
-20.195595 0.75636756 69.464561 6
-19.843748 0.74352247 69.351715 6
-18.968512 0.66318345 69.573975 6
-18.596256 0.64608783 69.547195 6
-18.153645 0.61678487 69.400879 6
-17.820784 0.60550314 69.409607 6
-17.595295 0.60219181 69.426956 6
-16.883739 0.59112012 69.343933 6
-16.549875 0.57789665 69.390175 6
-16.204096 0.55457348 69.328362 6
-15.65888 0.53685987 69.562302 6
-15.296483 0.5139907 69.335304 6
-14.966254 0.5083093 69.407982 6
-14.558972 0.48886952 69.387154 6
-14.150021 0.4811433 69.406525 6
-13.920693 0.46310449 69.435509 6.5
-13.408484 0.45764077 69.466026 6
-12.886856 0.43965197 69.48307 6
-12.660734 0.43732205 69.561241 6.5
-12.199333 0.41869485 69.468544 6
-11.860737 0.40788388 69.539658 6
-11.416565 0.40502894 69.213173 6
-11.153698 0.40298453 69.359207 6
16.311481 0.60287064 69.401375 8.0837269
16.616838 0.63475502 69.505493 8.1429453
16.952374 0.67876875 69.553047 8.1557493
17.417831 0.64662445 69.547981 8.1540003
17.795448 0.64461321 69.549744 8.1546364
23.568348 0.58738911 69.349075 8.1314516
23.708109 0.57154441 69.454971 8.1192656
24.146706 0.58489168 69.531021 8.1410503
24.605871 0.62259865 69.529953 8.1123943
25.040264 0.61363322 69.536926 8.136384
25.237513 0.54314101 69.566612 8.1496658
-33.218597 1.1453297 69.403984 4.275641
-33.130257 1.1141375 69.356773 4.2726192
-32.607708 1.049283 69.353249 1.5625
-32.194626 1.0454711 69.479836 1.888889
-31.738937 1.0341896 69.437599 2.5999999
-31.352163 1.0172106 69.322693 3
-30.90555 1.0117663 69.405991 3.1666667
-30.549784 1.0040874 69.328827 2.75
-30.121609 0.99699533 69.393806 2.875
-29.746893 1.0066365 69.367462 4.3636365
-29.266184 1.080604 69.37104 2.925
-28.966766 1.1333363 69.386147 6.6666665
-28.522158 0.88469923 69.508575 7
-28.209082 1.0364002 69.359024 6.9032259
-27.797628 0.94509459 69.385551 4.5
-27.41576 0.94758111 69.447372 4.1999998
-27.015741 0.95783031 69.452553 4.5
-26.56583 0.93215561 69.506378 4.8000002
-26.205194 0.91055334 69.340561 5.25
-25.859301 0.90774286 69.46209 5.75
-25.249121 0.9162727 69.519295 5
-25.00239 0.88915223 69.479439 5
15.915686 0.94760919 69.273026 8.0985003
16.294323 1.050006 69.366409 8.2632198
16.611845 0.94260597 69.481125 8.0637503
16.954807 0.93455696 69.484306 8.0743752
17.44908 0.9532392 69.487236 8.0635462
17.784122 0.9370746 69.487396 8.0668182
23.124426 1.0315614 69.363174 8.1739998
23.756166 1.0054288 69.434731 8.0453005
24.240213 0.87076205 69.43721 8.0200996
-33.22237 1.4006083 69.37719 5.595798
-33.178284 1.4422193 69.430183 5.8181815
-29.212446 1.3808038 69.381523 4.5201974
-29.189896 1.4356627 69.444054 4.9619045
-28.165207 1.2063355 69.50341 7
16.310698 1.2819736 69.397446 9.0217209
16.573467 1.3392174 69.50206 9.0304499
17.085566 1.3469689 69.569901 9.1387501
17.588581 1.379638 69.594612 9.1400003
17.704527 1.3552077 69.593094 9.1375008
-33.222702 1.8138272 69.389473 8.4251089
-33.175041 1.8142917 69.404839 8.315093
-29.200897 1.6526043 69.413185 8.3571434
-29.177418 1.6587859 69.398735 8.2319984
-28.273405 1.6615999 69.258675 8.0109997
-33.220066 2.2085619 69.422539 10.704623
-33.174488 2.2238407 69.410568 10.43035
-33.208447 2.6000037 69.411133 14.189499
-33.168446 2.5819061 69.388321 12.719686
-33.20578 3.1869965 69.559891 9
-33.167633 3.0235453 69.376961 12.888395
-33.212173 3.2280271 69.328819 9
-33.169815 3.3546071 69.380981 12.000343
-33.161823 3.8228247 69.351311 13.810357
-33.164658 4.1921329 69.312904 13.019167
-33.15308 4.4554677 69.409683 14.919583
-32.615303 4.5877771 69.372589 10.896389
-32.191246 4.6107693 69.46991 10.5745
-31.792267 4.6489 69.363899 10.457562
-31.375874 4.7743492 69.381416 10.139
-31.098316 4.7919788 69.427162 10.1275
-32.473194 4.8074484 69.35453 15.175
-31.750156 4.8715501 69.348419 10.2311
-31.336622 4.915607 69.355659 10.725834
-31.063803 5.0211463 69.392586 10.847765
-31.238379 5.4721165 69.484474 11.1705
-31.089478 5.3601422 69.404663 11.206728
-31.07324 5.8181176 69.392303 11.759832
-31.074739 6.0555968 69.378769 12.101089
-32.861877 9.1554098 69.425423 13.666667
-32.729252 9.1946011 69.552521 14
-32.210876 9.1182785 69.320786 14.0835
-31.838207 9.1772299 69.3853 14.620501
-31.436478 9.1472788 69.394547 14
-31.062946 9.1559038 69.403679 14.566393
-33.102837 9.2284565 69.370209 15.0945
-32.436024 9.2257252 69.491798 12.5125
-32.160534 9.2371178 69.212471 12
-31.238871 9.2289991 69.48999 13.085
-31.062231 9.4068413 69.416908 14.063206
-31.044588 9.8212337 69.391312 14.227039
-31.037313 10.240753 69.416023 14.20323
-30.658888 10.320486 69.393036 14.1405
-31.043749 10.604211 69.44928 14.364666
-31.048765 10.975682 69.389099 14.14107
81.320343 11.562555 69.436546 12
81.322479 11.626931 69.447678 12
14.638622 -0.83414531 69.964722 7
-1.9594611 -0.47211856 69.6241 7
0.66690493 -0.64958781 69.823418 7
1.7379192 -0.47768354 69.671944 7
2.9280491 -0.61507285 69.822388 7
4.4412117 -0.64813143 69.613373 7
6.6903543 -0.67553127 69.783829 7
12.23783 -0.78206944 69.715073 7
19.376215 -0.40630019 69.803314 7
19.981522 -0.40147793 69.696152 7
34.787518 -0.41557392 69.789177 9.0605001
-6.9130707 -0.34826592 69.975731 7
-6.026228 -0.37372363 69.87619 7
-1.1148657 -0.054445863 69.654449 8.0854998
2.3391449 -0.0108429 69.752724 5.3333335
2.7382832 -0.011736353 69.843025 5.6666665
2.9891872 -0.024249332 69.788605 5.4285712
3.4472537 -0.037861109 69.802383 5.2857141
3.6799011 -0.049719468 69.720512 5.75
4.7702465 -0.066991031 69.911919 6
4.9631648 -0.087076336 69.82164 6
5.4342489 -0.091060787 69.870964 6
5.7615752 -0.10366174 69.780556 6
6.22855 -0.11570202 69.831512 6
6.7314043 -0.10516775 69.823822 6
7.037292 -0.14359745 69.865723 6.5
7.4424071 -0.16821957 69.710167 6.6666665
7.8030748 -0.15420344 69.850121 6.1428571
8.3380375 -0.18147005 69.939781 6.6666665
9.1600723 -0.35433507 69.714302 7
10.74085 -0.26788568 69.956215 7
11.676303 -0.28667831 69.990402 7
12.252566 -0.3172431 69.636581 7
13.163938 -0.28085598 69.87088 7
13.333194 -0.26939538 69.784576 7
13.83393 -0.28856611 69.815651 7
14.248958 -0.310662 69.831779 7
14.566404 -0.31962872 69.839081 7
15.019058 -0.33699721 69.749924 7
15.453246 -0.30343962 69.751137 7
15.815447 -0.36399201 69.857185 7.4107003
16.247271 -0.2544679 69.735008 7
16.55588 -0.23923363 69.634743 7
17.061117 -0.27525401 69.82489 7
17.379076 -0.24950579 69.671158 7
17.905193 -0.3106541 69.667961 7
19.346167 -0.36138988 69.80265 7
20.273603 -0.37832212 69.785858 7
20.5112 -0.36308548 69.808937 7
21.182308 -0.3787064 69.89473 7
49.905834 -0.28041542 69.813248 8
-10.890137 0.38189605 69.839638 5
-10.619189 0.37762702 69.786835 5.8000002
-10.204409 0.34325615 69.789787 6.1999998
-9.7474899 0.33818787 69.774185 5.5
-9.4648476 0.34221926 69.779419 5.6666665
-8.9575577 0.32664445 69.800583 5
-8.6515074 0.31611222 69.774132 4.5999999
-8.0982065 0.29786757 69.817535 5.6666665
-7.7742491 0.29204494 69.837349 5.1999998
-7.3900728 0.27977282 69.764992 4.5999999
-6.9323468 0.26099506 69.73587 4.1428571
-6.5867352 0.25221327 69.793785 2.5
-6.2263274 0.24136135 69.78627 2.5
-5.8157911 0.22862795 69.792809 2.8425925
-5.3992162 0.21796976 69.836639 2.0833333
-5.0507493 0.20753594 69.865669 3.1666667
-4.6647053 0.19731174 69.872353 2.7777777
-4.2358203 0.1728995 69.854385 3.7142856
-3.8139102 0.17097929 69.816391 3
-3.4333196 0.15993071 69.824104 3.1428571
-3.0333886 0.14825836 69.915359 2.7142856
-2.5701747 0.13311863 69.828506 3.375
-2.1754515 0.11906654 69.84613 1.875
-1.768875 0.10557109 69.826057 3.2916667
-1.3530757 0.096188158 69.796951 2.0888889
-1.0696404 0.09368518 69.870872 3.5
-0.63297606 0.07974086 69.841309 3.1111112
-0.23524323 0.067849904 69.797569 4.25
0.18387088 0.058224801 69.755112 4.2727275
0.65847278 0.050019044 69.803291 5.3333335
0.89359176 0.024107084 69.858894 5
1.3755546 0.019879021 69.816788 4.875
1.8957028 0.014331818 69.955383 6
2.1499476 0.012199163 69.851334 5.5
2.4981019 0.0043505728 69.832603 6
-28.100983 0.74061316 69.638016 7
-26.18634 0.70156634 69.928314 7
-25.497375 0.68692255 69.768814 7
-24.981941 0.70993584 69.877869 7
-23.885986 0.72846746 69.98616 7
-23.120611 0.70752001 69.886749 7
-22.187744 0.7948041 69.825272 6
-21.815882 0.78166461 69.753075 5.6666665
-21.412237 0.78478992 69.842194 5.75
-20.629698 0.77590966 69.797005 6
-20.168983 0.72074485 69.806763 6.3333335
-19.640499 0.69263077 69.664246 6
-19.281187 0.67646551 69.647179 6
-18.492401 0.66565365 69.962166 6
-17.831417 0.62117267 69.769043 6
-17.420416 0.60493845 69.708244 6
-17.172318 0.59555942 69.870262 6
-16.63394 0.55596966 69.603287 7
-16.309664 0.58482766 69.740845 6
-15.903331 0.56606495 69.84259 6
-15.326505 0.52619338 69.785873 6
-14.958774 0.514516 69.78228 6
-14.644864 0.51734602 69.844177 6
-14.312325 0.50129431 69.828064 6
-13.724794 0.48233801 69.723877 6
-13.361005 0.46860251 69.802948 6
-12.603971 0.43573576 69.793015 6
-12.281403 0.43147266 69.831535 6.5
-11.717705 0.40216506 69.839226 6
-11.564814 0.40555027 69.617126 6
-10.559237 0.61571419 69.890244 6.7647057
-10.254204 0.64752477 69.950554 6.875
-9.933012 0.6114921 69.903336 6.4285712
16.274248 0.60743088 69.671089 8.0699997
16.475653 0.55255908 69.606094 8.1394997
17.316204 0.60047972 69.619949 8.1502504
17.765131 0.58027405 69.623848 8.1440001
23.79907 0.59334117 69.619621 8.1383333
24.149445 0.59809202 69.652496 8.1077862
24.482063 0.6054765 69.794067 8.0722504
25.021807 0.53197736 69.694405 8.1052504
25.202774 0.7582171 69.777252 8.0039997
25.711006 0.74020183 69.983078 8.0080004
-33.216824 1.1678263 69.819542 4.0171957
-33.092464 1.1246531 69.778473 3.5824175
-32.558666 1.0637721 69.73233 2.4444444
-32.169655 1.0523106 69.740959 2.5333333
-31.853357 1.0457462 69.857277 1.9333332
-31.405931 1.0413544 69.807381 2.9848483
-30.993608 1.0166345 69.765762 3.0769231
-30.590584 1.0213588 69.760231 3.4444444
-30.210907 1.0163387 69.714294 3.909091
-29.789789 1.0157268 69.778137 3.5999999
-29.2845 1.0744785 69.823799 2.8473213
-29.18996 1.1015507 69.779465 3.5
-28.210871 1.0242759 69.773094 6.978261
-27.813021 0.9227829 69.691238 6
-27.335035 0.94176054 69.853577 5.5
-26.974314 0.94789952 69.889526 5
-26.633911 0.93325746 69.757004 5
-26.154133 0.94457108 69.66024 5
-25.713093 0.91243011 69.872543 6
-25.354338 0.91612041 69.613983 6
-25.0247 0.91160834 69.778503 4.8000002
-24.584673 0.88784319 69.752884 6
-24.201067 0.87420964 69.780296 6
-23.779617 0.85767329 69.853401 6
-23.379629 0.84305608 69.861801 6
-22.97567 0.82817525 69.858391 6
-22.527588 0.80862623 69.895317 6
-22.183737 0.80684793 69.79216 4
15.824839 1.1427715 69.941292 8.1709995
16.268862 1.1776237 69.639061 8.1599998
16.82206 0.93352056 69.850761 8.0120001
17.461466 0.90348297 69.696327 8.0631666
17.855175 0.90994674 69.837372 8.0115004
18.358242 0.88986737 69.819397 8.0150003
22.930269 1.1375319 69.684578 8.0019999
23.480015 1.0474598 69.604691 8.1669998
-33.221642 1.4124358 69.807526 5.7948718
-33.181957 1.4192647 69.782974 5.3120813
-29.210152 1.4063584 69.8246 5.2584968
-29.191933 1.4372767 69.806244 4.7570162
-28.154972 1.2076619 69.927696 7
15.87318 1.4019954 69.844772 8.0185003
16.26285 1.2889423 69.66095 9.0528002
16.569809 1.3279631 69.60125 9.1420002
17.419983 1.3401048 69.606743 9.1415005
17.69039 1.3483636 69.636269 9.1350002
-33.226467 1.8020794 69.817413 8.3152046
-33.1772 1.8299906 69.775238 8.5200548
-29.203173 1.6606808 69.84243 8
-29.167494 1.6792785 69.825584 8.2763357
-33.218388 2.182862 69.811134 10.681429
-33.174187 2.2137482 69.791283 10.689893
-33.210369 2.5468383 69.81192 13.972834
-33.16748 2.6106961 69.812447 13.097393
-11.256531 2.6896141 69.910103 11.058
-10.965878 2.7140019 69.867401 12.146955
-33.221226 3.1814203 69.797646 9
-33.168282 3.0159292 69.788757 12.991221
-11.281291 2.8582981 69.882256 12.486667
-11.142629 2.8669178 69.93042 13.142
-9.3685436 3.1493142 69.824783 11.6929
-33.205887 3.2048812 69.965889 9
-33.171379 3.3675437 69.767029 12.136882
-9.2460861 3.2823627 69.732269 12.756667
-33.16909 3.773664 69.795242 13.738286
-33.205498 4.2327499 69.996002 10
-33.141804 4.2000003 69.826149 11.6173
-33.162647 4.5517764 69.821518 15
-32.526981 4.5905209 69.787834 10.730909
-32.345894 4.5414386 69.844574 10.059
-31.784012 4.6288857 69.748383 10.634763
-31.353962 4.7841535 69.963379 10.164
-31.09997 4.7725687 69.672035 10.132
-31.741304 4.8610559 69.804573 10.721168
-31.363556 4.9003386 69.890327 10.421333
-31.080587 5.0252705 69.774811 10.949306
-30.646616 4.852644 69.781548 10.129
-31.089737 5.3699994 69.819435 11.371044
-31.266838 5.7652178 69.862152 13.08625
-31.073692 5.8385868 69.798271 11.48516
-31.0737 6.063767 69.777199 12.315593
-33.127708 9.1492443 69.689377 14
-32.637379 9.1495142 69.813599 13.704417
-32.059761 9.1247826 69.896622 13.466199
-31.805136 9.1740532 69.765533 14.044722
-31.370714 9.1546602 69.838554 14.349334
-31.095758 9.170372 69.867676 14.421701
-33.046558 9.2707386 69.901543 14.058667
-32.784428 9.2574329 69.717941 12
-31.80043 9.2047186 69.768982 15.014999
-31.296604 9.2289982 69.963928 12.533501
-31.056793 9.3788595 69.745682 14.139126
-31.051069 9.7936592 69.831253 14.143137
-31.356337 10.324653 69.857574 14.139
-31.047396 10.245146 69.824715 14.060647
-31.046833 10.591329 69.779999 14.486863
-31.042719 11.006796 69.8498 14.0588
81.378075 11.539 69.761948 12
81.39827 11.645831 69.828201 12
-0.25987864 -0.52112424 70.04834 7
4.4322491 -0.60861892 70.003098 7
4.9122543 -0.62017995 70.333237 7
11.940374 -0.75119251 70.154266 7
16.04863 -0.41039777 70.059013 7
36.58543 -0.41018155 70.220306 9.0609999
53.082603 -0.45030949 70.05645 8
-6.3921204 -0.32485425 70.072098 7
-2.2131178 -0.19915771 70.129967 7.5425
2.5449572 -0.093474887 70.220314 5.75
2.9888217 -0.019684389 70.206467 5.25
3.3347738 -0.025918152 70.168663 5.1428571
3.9892535 -0.047058791 70.235001 6
4.2286081 -0.067079537 70.217445 6.4073997
4.5185618 -0.057128549 70.076736 6
5.1654439 -0.080866657 70.218605 6
5.532649 -0.084861994 70.272552 6
5.8286319 -0.15050352 70.261986 6.3333335
6.3397841 -0.11812657 70.283081 6
6.4418659 -0.11173251 70.203819 6.3333335
7.0365314 -0.11752434 70.214149 6
7.464067 -0.1245236 70.268959 6.3333335
7.7552614 -0.14700998 70.276115 6.2857141
8.1271868 -0.18158126 70.147491 6.5
8.6109381 -0.2180602 70.13195 7
12.289612 -0.22624919 70.388535 7
12.759945 -0.26729754 70.126862 7
13.050814 -0.27703679 70.077667 7
13.475375 -0.25102156 70.11953 7
13.78574 -0.25996542 70.176392 7
14.308979 -0.32829502 70.344894 7
14.650012 -0.34388638 70.070763 7.6843338
14.917834 -0.30047929 70.26754 7
15.417336 -0.30580139 70.170753 7
15.833695 -0.32411805 70.2743 7
16.297216 -0.33853436 70.051971 7
16.723648 -0.33360744 70.196114 7
16.968945 -0.33476204 70.188354 7
17.383171 -0.35473004 70.196358 7
17.974865 -0.30353862 70.208862 7
18.195934 -0.34065533 70.189774 7
18.702091 -0.3714534 70.099747 7
19.004566 -0.38710701 70.117889 7
19.374407 -0.36573961 70.233208 7
20.262236 -0.36878639 70.249954 7
20.551487 -0.36144051 70.228882 7
20.974869 -0.35758489 70.297188 7
49.675579 -0.27448231 70.165543 8
51.62978 -0.39725029 70.358604 8.1079998
-13.310435 0.39134547 70.170921 7
-11.015054 0.38269901 70.177734 6
-10.457458 0.37971294 70.218452 6.3333335
-10.136682 0.37623262 70.221703 5.8333335
-9.7508936 0.35935512 70.241829 6.1111112
-9.3163691 0.35362148 70.183174 5.6666665
-9.0601301 0.3307085 70.145523 5.9000001
-8.5511656 0.32366547 70.186142 5.5833335
-8.1440754 0.31091458 70.086159 5.8000002
-7.7264647 0.2940318 70.19545 5.0833335
-7.4158401 0.27945912 70.243492 4.6666665
-7.0321112 0.27142766 70.207191 4.6923075
-6.5791574 0.2598778 70.2257 4.1538463
-6.1267791 0.24138807 70.223396 2.890909
-5.8329601 0.23670956 70.222214 4.5999999
-5.3624868 0.21750055 70.185982 5.1111112
-4.9796357 0.20093612 70.115311 4.8333335
-4.6109433 0.19672416 70.20327 4.590909
-4.2275491 0.19121447 70.210449 3.7
-3.8524637 0.172913 70.169518 3.7777777
-3.4521263 0.15133291 70.248909 3.3427222
-3.0498738 0.15932594 70.257248 3
-2.6608934 0.14465189 70.224579 2.6666667
-2.2423151 0.13428006 70.221039 3
-1.7841188 0.118968 70.202179 2.4944446
-1.4239757 0.11193115 70.167496 2.8181818
-0.98570961 0.093018293 70.155777 3.25
-0.59385449 0.082689248 70.182587 3.8333333
-0.17721617 0.077597782 70.190742 4.5
0.24877036 0.054752111 70.191284 4
0.56582022 0.056078374 70.171577 5.3333335
1.0850148 0.036920488 70.228981 5
1.3210108 0.030602776 70.155731 4.25
1.7628158 0.019517502 70.19442 5.7142859
2.2009943 0.015126497 70.221931 5.8333335
2.4501951 0.0025858581 70.212738 5.5
-26.468452 0.74512661 70.386864 7
-25.765104 0.73037815 70.229492 7
-25.530712 0.69762838 70.174957 7
-24.986118 0.69969636 70.181175 7
-24.581841 0.723665 70.335045 7
-24.238218 0.66875064 70.264946 7
-23.616741 0.64625621 70.06575 7
-23.474804 0.72584713 70.3554 7
-22.647551 0.70284814 70.205795 7
-22.166874 0.7140789 70.160057 7
-21.640255 0.78882778 70.191795 5
-20.930534 0.79446876 70.253899 6
-20.481617 0.78595185 70.337654 6
-20.33296 0.77780855 70.183571 6
-19.874708 0.63257951 70.112122 7
-19.443476 0.70661527 70.178032 6
-18.2083 0.60694993 70.163651 7
-17.505419 0.60164791 70.007416 6
-17.038233 0.59179825 70.103035 6
-16.605671 0.58410531 70.270927 6
-15.717539 0.55975175 70.223526 6.5
-15.422572 0.54589784 70.216248 6
-15.02262 0.53091216 70.174431 6
-14.413198 0.49738562 70.078934 6
-14.180772 0.50659496 70.146614 6
-13.649225 0.4749521 70.133736 6
-13.447038 0.48657927 70.112038 6
-13.04247 0.47029099 70.240929 6
-12.653133 0.50468606 70.290344 6.1666665
-12.138206 0.48799467 70.261955 6.1666665
-11.776992 0.57561123 70.273529 6.6153846
-11.415824 0.47667065 70.30867 6.3333335
-11.195915 0.41977856 70.346558 6
-10.595783 0.56036806 70.133362 6.5882354
-10.201509 0.58513564 70.133606 6.7179489
-9.8759995 0.56343979 70.203362 6.521739
-33.220749 1.1554868 70.18502 4.1833334
-32.991989 1.1113614 70.220139 3.0571427
-32.654842 1.0833004 70.113693 1.8571428
-32.274502 1.0719448 70.168236 1.75
-31.821976 1.0715461 70.214119 1.6666666
-31.442734 1.0611475 70.143684 1.3333334
-31.028244 1.0346658 70.207993 3.25
-30.69891 1.0276394 70.305756 2.4000001
-30.223349 1.0374238 70.242729 1.6
-29.856174 1.0140698 70.197411 2.4000001
-29.29607 1.1250455 70.207222 2.6346154
-29.189388 1.0889962 70.19532 4.5
-28.210411 1.0486854 70.216187 7
-27.74551 0.98284495 70.206863 5.5
-27.346331 0.98511827 70.318939 6
-26.901438 0.972875 70.277054 5.5
-26.474478 0.93812931 70.164375 6.5
-26.09948 0.95701969 70.296219 5.5
-25.676373 0.94313037 70.300491 6
-25.365723 0.9397192 70.289154 5
-25.009253 0.8906517 70.159576 5.6666665
-23.342014 0.84420061 70.312706 6
-22.967812 0.82673424 70.152855 6
-22.31673 0.82081264 70.237915 4
-21.791391 0.81107497 70.216827 6
-21.493748 0.80324399 70.374901 5
-12.123638 0.81155819 70.362045 7
-10.18364 1.0524647 70.269447 7.7356873
-9.9472027 1.1738098 70.299385 8.1400003
-33.223049 1.4055252 70.200691 5.5574713
-33.180855 1.3826033 70.194847 4.8461108
-29.214279 1.4150015 70.203339 4.874567
-29.18412 1.4144568 70.188789 5.333333
-28.169918 1.2131505 70.349007 7
-33.217861 1.7886211 70.217522 8.0784311
-33.18111 1.8263655 70.169861 8.2954483
-29.203741 1.6617827 70.205162 8.166667
-29.176598 1.6837131 70.21608 8.2031755
-33.217293 2.1685495 70.18486 10.187105
-33.175652 2.244005 70.171867 11.024892
-33.211632 2.5914428 70.181839 14.160071
-33.17355 2.5749557 70.166664 13.128082
-11.242615 2.6860654 70.073441 10.027833
-11.018928 2.720346 70.221214 11.492468
-10.752446 2.707957 70.263504 12.3825
-8.2581806 2.5907738 70.332077 9.8606005
-33.208748 3.1915321 70.128983 9
-33.169567 3.0185905 70.187729 12.452632
-11.916716 2.9444118 70.342972 9.1424999
-11.301877 2.8428249 70.098427 10.872416
-11.075674 2.8849022 70.15432 12.1065
-9.3812513 3.1361589 70.20887 9.0410004
-9.1461 2.9588614 70.387604 10.165
-8.6629171 3.1393871 70.154404 9.0085001
-33.174862 3.3433685 70.202507 11.726607
-8.8391342 3.2236791 70.196655 13.0835
-8.6423531 3.2746596 70.255821 12.065625
-33.173141 3.7856474 70.160942 13.52875
-33.173168 4.1984601 70.222603 12.125
-32.09935 4.2846308 70.073074 9.0795002
-33.063717 4.6198626 70.279701 13.839801
-32.551224 4.5631833 70.220581 10.04925
-32.218765 4.6090989 70.200981 11.13789
-31.804199 4.665864 70.21003 10.526907
-31.785828 4.8343472 70.195724 10.44925
-31.547873 4.9225769 70.072296 10.431666
-31.077656 5.0226016 70.191902 10.727022
-31.376009 5.5842929 70.117882 10.062333
-31.084421 5.3719568 70.234261 11.223969
-30.790802 5.3461113 70.074707 10.074
-31.068483 5.8465047 70.227074 11.834142
-31.073904 6.0478868 70.186699 12.13415
-33.053043 9.1357899 70.1549 14.25
-32.620598 9.1358948 70.155495 13.0345
-32.214409 9.1508121 70.237541 14.11375
-31.772398 9.1295042 70.177551 12.887334
-31.421045 9.1470394 70.19561 14.279916
-31.042114 9.141964 70.196129 13.987682
-32.812286 9.2341805 70.213074 14.0605
-32.479553 9.2037849 70.286324 14
-32.243866 9.203475 70.064209 15.0515
-31.792068 9.2122717 70.254578 14.507626
-31.501255 9.2166691 70.178162 14
-31.060165 9.3543234 70.166405 14.371473
-30.720074 9.5285292 70.27903 13.074
-31.075022 9.8187847 70.226791 14.162251
-31.458809 10.390848 70.038956 13.0685
-31.053225 10.207201 70.258614 14.063115
-31.326485 10.620716 70.333839 14.161
-31.054817 10.582684 70.218407 14.334917
-30.642126 10.505689 70.200119 14.129001
-31.052282 11.114686 70.289383 14.313875
-30.683964 10.993898 70.10791 14.074
81.468422 11.574947 70.178719 12
81.475464 11.652232 70.202362 12.026449
1.6503265 -0.59858423 70.794724 7
3.8547151 -0.58482605 70.707092 7
5.8764019 -0.71228802 70.754349 7
6.816853 -0.67383093 70.789566 7
9.4660244 -0.72253597 70.493576 7
12.146093 -0.73957896 70.568146 7
24.065254 -0.76292765 70.674545 7
38.507305 -0.40380415 70.761734 9.0614996
52.743488 -0.43902493 70.70047 8
52.893612 -0.4435873 70.458305 8
1.2115885 -0.007535696 70.76651 7
1.8760439 -0.02758956 70.786163 7
2.211843 -2.5868416e-05 70.464386 6
2.5654948 -0.0071525178 70.645546 5.6666665
3.0996153 -0.011630793 70.652519 5
3.2935846 -0.016851097 70.583992 5.1666665
4.384407 -0.063208044 70.476341 6
4.6300635 -0.055468541 70.684135 6
5.0177584 -0.054096609 70.619537 6
5.4243917 -0.083755426 70.618935 6.1999998
5.8628135 -0.052249741 70.663139 6.5999999
6.1595325 -0.037270777 70.557495 6.5294118
6.5895987 -0.058063444 70.671341 6.5
6.8749814 -0.10878554 70.603851 7
7.454546 -0.12808794 70.566429 6.25
7.6946378 -0.12749082 70.644508 6
8.1505089 -0.17102402 70.577469 6.5
8.8620529 -0.2095927 70.77594 7
9.8800097 -0.24290395 70.769165 7
11.24755 -0.26905131 70.426674 7
11.817458 -0.21100071 70.720955 7
12.18493 -0.28574443 70.53064 7
12.591026 -0.26102465 70.40155 7
12.880571 -0.22910595 70.766151 7
13.310781 -0.26076725 70.543655 7
13.730624 -0.24836257 70.780869 7
14.191429 -0.27291876 70.451645 7
14.655212 -0.30866858 70.63459 7
15.114364 -0.34526825 70.689552 7
15.319362 -0.3019191 70.730965 7
15.862615 -0.32388371 70.453743 7
16.169889 -0.3410165 70.572639 7
16.501331 -0.37574863 70.5401 7
16.891438 -0.32354978 70.736328 7
17.382771 -0.33509827 70.527496 7
17.609453 -0.34930646 70.628601 7
18.12751 -0.31632185 70.664032 7
18.55567 -0.33971575 70.59993 7
18.986811 -0.36808765 70.666122 7
19.400431 -0.34578013 70.676506 7
19.97188 -0.3051641 70.752831 7
20.284485 -0.3601827 70.686707 7
20.495506 -0.35370651 70.62767 7
20.997005 -0.34757882 70.677277 7
21.636889 -0.36537099 70.654045 7
49.465935 -0.26843297 70.547012 8
-11.070165 0.39961153 70.631996 6
-10.544488 0.38827983 70.639061 5
-10.187484 0.35584784 70.770767 7
-9.7417479 0.34564513 70.572433 6
-9.5291214 0.3419728 70.656799 6.25
-8.9435873 0.32875827 70.612511 5.25
-8.5730162 0.31574416 70.44268 5.3333335
-8.2609262 0.30317685 70.662231 6.090909
-7.852469 0.29644838 70.61161 4.1428571
-7.4166207 0.27872875 70.61718 5.2307692
-7.0252895 0.27040303 70.609665 4.9230771
-6.5803499 0.26152489 70.607529 3.8181818
-6.1848083 0.25093657 70.630409 3.3555558
-5.7232952 0.23015516 70.523674 3.9111109
-5.3523211 0.22747326 70.599396 4.6363635
-4.9865694 0.21479796 70.597351 3.909091
-4.5199304 0.19455706 70.533432 3.2
-4.1324682 0.19511549 70.581833 2.25
-3.7322731 0.17582706 70.574265 3.75
-3.3548369 0.16479932 70.550735 4.375
-3.0377445 0.1619643 70.600143 4.25
-2.6129568 0.14503361 70.611504 3.6969695
-2.1976347 0.13529573 70.616219 3.5454545
-1.8506031 0.13487656 70.577667 4.2222223
-1.432615 0.106929 70.58017 3.3
-1.0292935 0.10944114 70.618889 4.090909
-0.62810665 0.089075863 70.558662 4.0833335
-0.24428892 0.075785205 70.585106 4.5999999
0.11968155 0.071838863 70.569313 4.5999999
0.62954146 0.049412537 70.624275 5.25
0.9979915 0.047699213 70.526695 4.4285712
1.3314348 0.038326547 70.57901 5.3333335
1.7811311 0.02878952 70.552444 5.75
2.1417139 0.01649175 70.551079 5.6666665
2.5934143 0.0049752444 70.560852 5.75
5.8813696 0.15882716 70.697273 6.8666668
6.1685538 0.13972591 70.573875 7.0202594
6.4516239 0.1448347 70.633507 7
-30.026123 0.76930058 70.485428 7
-28.566097 0.78146744 70.679413 7
-26.990366 0.71870339 70.501236 7
-26.254972 0.71383309 70.466179 7
-24.236092 0.74028778 70.674896 7
-22.167772 0.69783676 70.511925 7
-21.692371 0.7475785 70.552185 6
-20.569508 0.79307199 70.606689 6
-19.520254 0.62892038 70.503952 7
-17.785633 0.60185611 70.501434 7
-17.331779 0.5959053 70.798309 7
-16.873348 0.59291726 70.406555 6
-16.614725 0.58804655 70.594742 6
-16.159479 0.57692212 70.593048 6
-15.604916 0.56541681 70.753853 6
-15.349485 0.57119185 70.483025 6
-14.990411 0.53891933 70.560814 6
-14.58481 0.54827529 70.671021 6
-14.252681 0.49626681 70.581192 6
-13.826607 0.49069405 70.605492 6.25
-13.497322 0.49631691 70.612518 6
-12.946835 0.45675841 70.660126 6
-12.519552 0.56089491 70.561951 6.5
-12.168707 0.65036541 70.614189 6.9142857
-11.75575 0.64332139 70.573715 6.8235292
-11.491314 0.56412679 70.634605 6.5
-10.963553 0.48270363 70.651924 6.1999998
-10.624054 0.58801639 70.58725 6.8095236
-10.28119 0.62631387 70.658318 6.6666665
-9.9123011 0.56127268 70.665321 6.5833335
-33.2188 1.1771233 70.510849 3.4749999
-33.14447 1.1232904 70.474792 4.2038093
-32.612827 1.0965133 70.546455 1.625
-32.274082 1.0917559 70.580238 1.6875
-31.813684 1.0731586 70.619759 2.125
-31.385839 1.060655 70.682693 3.1666667
-30.993086 1.0561799 70.624481 2.909091
-30.586735 1.0491626 70.635422 3.0999999
-30.167002 1.0396538 70.630775 3.2222223
-29.765558 1.0292134 70.569153 4.0999999
-29.281189 1.0958875 70.622467 2.9043212
-29.149223 1.0408142 70.578911 1
-28.618179 0.83130062 70.489845 7
-28.203951 1.038744 70.603645 7
-27.382992 0.98460531 70.610886 5
-27.122065 0.97878563 70.407898 5
-26.494545 0.97336191 70.674728 5
-25.683048 0.91615069 70.631119 5.5
-25.521292 0.95556396 70.481239 4
-25.014235 0.86618435 70.596619 7
-24.486725 0.90044677 70.580261 6
-24.111099 0.88544708 70.532936 6
-23.812952 0.87157273 70.474892 6
-23.387032 0.8623181 70.527748 6
-22.970238 0.84659272 70.546349 6
-22.49613 0.83165896 70.632187 5
-22.1668 0.82622451 70.559906 6
-21.743986 0.80403292 70.578705 5.5
-21.194519 0.80990052 70.614845 6
-20.742756 0.80559146 70.785599 6
-12.220098 0.82469451 70.514595 7
-11.809628 0.8662414 70.55368 7
-10.284827 1.1322602 70.41169 7.7209167
-33.216942 1.4302154 70.602295 5.5333338
-33.180099 1.3779292 70.571747 4.8629627
-29.212584 1.4160985 70.583267 4.6361527
-29.192842 1.5240273 70.621368 5.0833335
-28.158733 1.2219297 70.728928 7
-33.220318 1.7996997 70.609665 7.909091
-33.180954 1.7927593 70.605247 8.0724068
-29.169996 1.6912122 70.587921 8.0812273
-33.222607 2.1621759 70.631142 9.1578951
-33.178886 2.2164721 70.558281 11.039738
-8.9574633 2.2465281 70.772171 10.094
-33.212036 2.6210878 70.533913 14.461991
-33.169956 2.5725102 70.589951 13.466041
-11.891775 2.7310011 70.533035 10.118125
-11.219589 2.596251 70.751343 9.0299997
-10.960298 2.6779349 70.549416 11.200971
-10.751859 2.6492391 70.636467 11.356025
-8.5229969 2.506731 70.619705 12.092
-8.0939074 2.6222956 70.627274 10.684094
-7.8909206 2.6083815 70.518143 10.04325
-33.237457 3.0625274 70.568886 11
-33.169662 3.0385678 70.593277 12.894629
-12.125934 2.9338348 70.421249 9.1540003
-11.748036 2.9291396 70.548706 9.7042818
-11.275829 2.8863392 70.55468 10.036
-10.979048 2.8345311 70.412392 11.0735
-9.9745274 3.0006804 70.577316 9.1639996
-8.6460791 3.0424337 70.624664 12.164199
-8.3706532 2.93505 70.75563 12.62625
-7.7667847 2.9257755 70.711655 9.1545
-33.201298 3.205229 70.534294 9
-33.179577 3.282217 70.568031 10.833333
-8.8617172 3.2019315 70.483589 10.174
-8.6605253 3.3392591 70.579247 12.727044
-8.3899479 3.2896366 70.629288 9.0080004
-33.17524 3.8102975 70.539276 12.875
-33.209373 4.227169 70.54776 10
-33.175323 4.2511034 70.63401 12
-11.768739 4.0506372 70.747551 12.514899
-11.372656 4.0273509 70.788239 11.158
-33.164318 4.5388947 70.722466 14
-32.562374 4.5383315 70.726646 9.6993332
-32.130878 4.5980072 70.551239 10.689857
-31.79953 4.6602926 70.604736 10.630499
-9.708601 4.5276504 70.685722 11.6416
-9.3964539 4.5433774 70.656357 14.5885
-32.945244 4.8498302 70.484573 15.17375
-31.776575 4.8760738 70.63018 10.597
-31.418497 4.8925595 70.522469 10.493713
-31.063152 5.0277748 70.624512 10.922329
-30.622562 4.9414091 70.541504 10.141001
-31.207893 5.5818791 70.498306 11.0765
-31.08239 5.4019318 70.599167 11.213457
-31.235735 5.6038914 70.543961 11.171
-31.069227 5.8276119 70.596138 11.682569
-31.06148 6.0678096 70.614006 11.842454
-32.950333 9.1747713 70.637917 13.6129
-32.623646 9.1548004 70.707924 13.844083
-32.160088 9.1547871 70.550529 13.766214
-31.670179 9.0921268 70.588829 13.150499
-31.48173 9.1445055 70.634651 13.526555
-31.053055 9.151763 70.590553 13.553001
-30.751524 9.1314039 70.435638 13.129001
-32.666153 9.2593775 70.784004 15.096
-32.287125 9.2083397 70.591003 13.005125
-31.85429 9.2275867 70.597015 13.774625
-31.343872 9.2207489 70.735565 15
-31.039965 9.3991632 70.607025 14.242132
-31.040854 9.7964573 70.572624 14.370146
-31.048861 10.264616 70.570358 14.131917
-31.612789 10.631914 70.696335 14.1475
-31.073713 10.578756 70.603287 14.263929
-31.014719 10.952213 70.531273 14.3045
-31.043629 11.229227 70.528343 14.54625
81.615707 11.477984 70.767059 12
81.555336 11.6316 70.62204 12
81.603119 11.668153 70.74453 12
-0.68411183 -0.48736423 71.055611 7
3.1261849 -0.49376839 70.980888 7
13.637718 -0.75777566 71.100021 7
52.631794 -0.43449944 70.987473 8
2.5391831 -0.046845436 70.831421 7
3.0982003 -0.015602641 70.909798 5.625
3.382247 -0.018584672 71.097244 6.25
3.8573222 -0.064475283 71.077637 7
4.2406888 -0.036200348 71.033455 6.6666665
4.6676512 -0.042005416 70.960182 6.25
4.9575968 -0.063996978 70.985336 6.25
5.4227505 -0.068636291 70.936234 6.5
5.7928891 -0.056444339 71.012756 6.4465275
7.1998501 -0.10257602 70.911385 6
7.5893936 -0.12266099 70.995888 6
7.9488535 -0.1345399 70.972618 6
9.4537477 -0.22002637 71.049744 7
10.406277 -0.24544251 71.196564 7
11.320223 -0.19520959 70.992477 7
11.747831 -0.27052879 70.887421 7
12.58041 -0.25168613 71.050568 7
13.254266 -0.23231402 71.080872 7
13.72223 -0.32349491 70.950287 7
14.186754 -0.31694862 71.084122 7
14.771709 -0.27413604 70.942596 7
15.427381 -0.303624 70.869766 7
15.791881 -0.30605257 71.019119 7
16.180868 -0.33967507 71.083778 7
16.595818 -0.32019973 71.110184 7
16.811188 -0.36983895 71.084145 7
17.52047 -0.33146429 71.053886 7
17.762938 -0.32593837 70.889839 7
18.249454 -0.31731659 70.957809 7
18.639397 -0.32218871 71.078964 7
19.415106 -0.33815977 71.085159 7
19.799305 -0.33345655 71.032776 7
20.270687 -0.34794787 71.031807 7
20.622572 -0.34530884 71.001717 7
21.116444 -0.34622711 71.088692 7
21.646379 -0.35848367 71.095116 7
32.672852 -0.31467691 71.062927 8.1014996
49.219807 -0.26241717 70.883553 8
55.225826 -0.31997561 70.992897 8.1090002
-13.505627 0.39057705 71.047127 7
-11.220777 0.38431856 70.945496 7
-10.785197 0.39791846 70.925278 6
-9.3768253 0.35853225 71.027359 5
-8.985199 0.34813485 70.846298 4.5
-8.6602163 0.34718648 70.959541 5.3333335
-8.2315273 0.32877851 70.997719 5.3333335
-7.7864909 0.30386654 70.998489 5
-7.324892 0.29590562 71.009377 4.5555553
-6.9331875 0.28368583 71.044525 3.9166667
-6.5827227 0.27079669 70.948761 3.5454545
-6.211966 0.26713216 71.026466 2.7272727
-5.7627263 0.24704355 70.999107 4.5
-5.3666282 0.23761475 71.014908 3.1428571
-5.0045905 0.23226582 70.993484 4.1428571
-4.5556011 0.21556515 71.003815 4.3333335
-4.1843815 0.18668063 70.999809 4.6083999
-3.7253051 0.1971871 71.019302 4
-3.3138669 0.17306402 71.028702 3.8
-2.9234216 0.1722261 71.012421 4
-2.565304 0.16299784 71.034576 3.7
-2.1541574 0.15085357 71.019371 3.9375
-1.7863322 0.13504453 71.034859 2.3939395
-1.4350455 0.12605995 70.995148 3.5625
-0.98060244 0.10922341 71.034698 4.4000001
-0.65826708 0.09457998 70.9935 4.181818
-0.22318776 0.090491481 71.017982 4.875
0.14226906 0.0799734 70.998985 5.125
0.57705671 0.070826843 71.041695 5.1999998
0.98466903 0.056006752 70.936905 5.125
1.3208079 0.048079956 70.971664 5.5
1.7588093 0.030080678 70.988335 5.7142859
2.2789023 0.02111741 71.145599 5.3333335
2.6101768 0.013011022 71.050034 6
3.0056045 0.0050603533 71.038399 5.8000002
5.5919604 0.26713803 71.06424 7
5.8181062 0.14424773 70.980736 6.8333335
-30.939966 0.78643131 71.012871 7
-29.941225 0.78813636 70.869156 7
-27.315996 0.76349139 71.036514 7
-27.054104 0.73173487 71.00563 7
-23.820156 0.73719883 71.061661 7
-21.716463 0.69317925 70.837959 7
-21.250856 0.6880433 71.144913 7
-19.095564 0.62370509 70.820198 7
-18.725204 0.61941403 71.196236 7
-16.245672 0.58172876 70.806877 6
-15.826736 0.55508214 70.973701 6.3333335
-15.335892 0.53982234 71.067253 6.3333335
-14.948834 0.54921973 70.919006 6.25
-14.557393 0.53941828 71.014915 6.25
-14.188087 0.52613604 71.049049 6.25
-13.696925 0.68270874 71.081696 6.8333335
-13.434089 0.68403858 71.050346 7
-13.116441 0.70284432 71.131035 6.8333335
-12.640574 0.56053478 71.110847 6.3333335
-12.133025 0.57458663 70.94899 6.625
-11.770781 0.58294749 71.026749 6.6666665
-11.427754 0.56263447 70.924942 6.5
-10.941065 0.57947648 70.984093 6.5999999
-10.586214 0.58543491 70.956635 6.375
-10.247247 0.55598748 71.030266 6.5357141
-9.9881048 0.71718264 70.824837 7
-33.212318 1.1840341 70.96904 3.3666668
-33.025578 1.1057276 70.983131 3.4833333
-32.639725 1.1123708 70.889359 1.5
-32.186882 1.1008019 70.969498 1.7407407
-31.793484 1.097641 71.020325 2.125
-31.5364 1.0849768 70.94352 1.3333334
-31.056017 1.0660481 71.020271 2
-30.619364 0.95668668 70.997742 4.2857141
-30.226408 1.0625457 70.994957 1.3333334
-29.8766 1.0464402 70.929916 1.8333334
-29.27759 1.1254923 70.984505 3.2397957
-29.198734 1.1333255 71.041084 4
-28.211454 1.0455106 71.024864 7
-27.987423 0.92094827 71.033516 7
-27.40801 0.91853762 71.173401 7
-26.880346 0.94816756 71.059937 6
-26.737385 0.98357528 70.833282 5
-26.19495 0.9317708 71.104645 6.5
-25.69051 0.94989413 71.086327 6
-25.310312 0.93419343 70.973633 6
-25.007225 0.92333245 70.845985 6
-22.644745 0.84502482 71.06591 5
-21.759899 0.82010508 71.064667 5
-21.566811 0.82167304 70.921242 5.5
-20.914955 0.81594503 71.074356 6
-13.660967 0.81025124 71.095924 7
-13.33292 0.83050197 71.010315 7
-13.191032 0.84412771 71.170822 7
-12.044432 0.80230504 71.162392 7
-11.902637 0.90768641 70.938644 7
-11.548271 0.80233419 71.055161 7
-10.670027 0.84822369 71.035721 7
-33.220463 1.4034929 71.006516 5.0745101
-33.180016 1.401915 70.975769 4.8302007
-29.216106 1.4084667 71.014343 3.8533809
-29.195444 1.4300851 70.960228 2.5
-28.177662 1.221087 70.989265 7
-33.217865 1.8108963 71.034683 7.9900002
-33.184692 1.8381407 71.005699 8.195652
-29.204859 1.6851941 71.009003 7.75
-29.181128 1.7042532 71.009369 8.1806679
-33.222378 2.1886086 71.02108 10.425817
-33.182899 2.2123361 70.992264 10.523277
-8.8509169 2.2777739 71.040977 11.726706
-8.5884361 2.2441735 71.055435 12.265989
-8.281353 2.2844629 71.062485 10.1336
-33.216667 2.5202773 71.027031 13.737122
-33.174187 2.6111825 70.96846 13.536363
-11.668673 2.6651397 70.931473 9.0675001
-11.48904 2.7036347 70.973663 11.072
-10.971701 2.6682775 70.923668 10.844786
-10.635914 2.6342921 71.059174 11.819832
-10.356637 2.7205174 71.03022 12.063667
-8.928998 2.7300482 71.088173 10.005334
-8.531908 2.5397859 71.004341 10.680192
-8.2720976 2.5450573 70.951378 12.227069
-33.213181 3.0545933 70.993668 11.451285
-33.168827 2.9769888 71.020996 13.734722
-11.446526 2.9133224 71.013992 9.0502501
-10.931079 2.9086788 71.019707 11.421417
-10.65211 2.8555017 71.032059 12.460901
-9.6480103 2.951797 71.108597 11.09575
-9.2481422 3.0993519 71.00692 10.046
-8.9171991 3.0298615 71.027351 11.878637
-8.5857086 2.9901876 70.991142 11.755339
-8.3560562 2.9339538 70.950211 12.0725
-7.775672 2.8550944 71.19326 9.1625004
-33.240444 3.2035909 71.165306 9
-33.185734 3.2977989 70.960625 10.084139
-11.893633 3.3201654 71.011093 12.1705
-11.364953 3.2453852 71.046822 12.7845
-8.6954784 3.3149624 71.021217 12.5765
-8.3153534 3.4333937 71.048141 11.5
-33.173927 3.707181 70.970596 12.333334
-12.274077 3.8680573 71.114258 10.05625
-11.830262 3.9214859 70.936394 10.701167
-10.943178 3.9332898 71.099876 12.60375
-33.202374 4.216579 70.964813 10
-33.179642 4.1983733 70.950699 10.8
-11.707253 4.0916948 70.891617 11.054417
-11.33132 4.0932455 71.038261 12.07675
-10.962126 4.1323385 71.113495 12.501822
-10.766023 4.1448965 71.097076 15.1175
-10.334325 4.1703262 71.123154 10.1605
-9.7188816 4.3313684 71.129608 12.03475
-9.4834986 4.2367425 71.067551 10.756249
-33.007725 4.5936728 70.982368 11.8908
-32.155212 4.5629311 70.998604 10.030001
-31.828299 4.6719303 70.981216 10.727168
-9.7064629 4.5474281 70.957069 12.733251
-9.4268436 4.459322 71.007988 13.205222
-33.061829 4.8273401 71.157257 14.59725
-32.788376 4.8021393 71.119385 14.096
-31.785753 4.8493919 70.973114 10.586437
-31.311239 4.8848782 71.014236 10.54725
-31.078154 5.0265412 71.01487 10.80576
-11.035304 5.0502505 71.149529 12.081333
-9.8505793 5.1835494 71.096245 13.578751
-31.082483 5.3593125 71.029953 11.028716
-10.171237 5.2805023 71.094177 11.28425
-9.8618641 5.2155671 71.097015 12.0315
-31.083012 5.8160071 71.005981 11.585809
-9.871048 5.7241745 71.127029 12.064
-31.077154 6.0587168 71.003456 11.8276
-26.195442 7.9608269 71.147675 13.09075
-25.903717 7.9996672 71.163719 13.068
-26.215063 8.2751551 71.096489 13.392834
-26.167683 8.6780777 71.144096 13.67175
-33.023632 9.1501465 71.038536 14.193084
-32.475769 9.1576548 71.049049 13.698583
-32.304363 9.1517839 71.039543 14.032499
-31.829699 9.1254482 70.944382 13.278333
-31.399076 9.1581116 71.001465 13.881667
-31.03381 9.154417 70.922424 13.842999
-26.132294 8.882369 71.132103 13.694
-25.84819 8.8580265 71.161194 13.54875
-32.980873 9.2261581 71.006592 13.2084
-32.510849 9.2465267 71.024139 12.534
-32.196068 9.2258043 71.088631 14.013124
-31.828396 9.2140179 70.861603 13.514
-31.41835 9.2325611 70.954491 13.6556
-31.071024 9.3473806 71.044067 14.103809
-30.62591 9.2240257 70.953133 13.141001
-25.878834 9.4233913 71.094223 14.546249
-31.068001 9.821722 71.015427 14.338955
-26.033665 9.6295376 71.170685 13.071
-31.065489 10.216484 71.052254 13.710227
-31.038527 10.52913 71.011841 14.489363
-30.638327 10.6899 70.999359 14.141001
-31.07201 11.017053 71.048203 14.0604
-31.039679 11.231237 70.900215 15.0625
81.636543 11.477448 71.064339 12
81.554459 11.641471 70.880486 12
81.642067 11.63612 71.089775 12
1.0302165 -0.53688049 71.524338 7
3.0147991 -0.65065598 71.580078 7
12.447489 -0.73579454 71.489548 7
15.121912 -0.77503556 71.458115 7
22.22068 -0.71191204 71.45578 7
52.499119 -0.42991018 71.251701 8
2.2615025 -0.0022511184 71.425613 7
2.7977164 -0.017667621 71.290291 7
3.053112 -0.0035133958 71.321671 5
3.5262017 -0.014855299 71.442886 6.5
3.7532744 -0.085091099 71.408401 6.1999998
4.1799688 -0.03071991 71.505173 6.5
4.5483441 -0.060658712 71.318733 6.6666665
5.0849409 -0.082369655 71.349136 6.5
5.3373709 -0.057626747 71.452637 6.1999998
5.8854952 -0.078990296 71.333046 6
6.1915736 -0.093385503 71.450798 6.1428571
6.6657276 -0.099218488 71.492126 6
7.1601648 -0.11154389 71.352661 6
7.5436335 -0.11755306 71.499161 6
10.023944 -0.22780979 71.380997 7
10.720746 -0.23709106 71.490479 7
12.116426 -0.23520848 71.424545 7
12.755869 -0.21581104 71.331871 7
13.229702 -0.29091465 71.455414 7
13.8614 -0.25788409 71.548332 7
14.288623 -0.31204623 71.374397 7
14.547931 -0.26097336 71.350311 7
15.121361 -0.30088949 71.349098 7
15.298825 -0.32102442 71.241371 7
15.868118 -0.31060189 71.242569 7
16.37426 -0.3169131 71.397415 7
16.763689 -0.32304963 71.371178 7
17.143566 -0.31668106 71.264084 7
17.437489 -0.30665681 71.307281 7
17.845634 -0.32204926 71.365654 7
18.146795 -0.30872193 71.424049 7
18.629921 -0.32906771 71.33744 7
18.928572 -0.34781253 71.213036 7
19.463242 -0.33931381 71.390503 7
19.808939 -0.31172869 71.373741 7
20.206795 -0.33083481 71.432938 7
20.580011 -0.34194958 71.405937 7
21.059048 -0.33728343 71.511322 7
21.577105 -0.34826648 71.525101 7
40.521606 -0.39601806 71.349068 9.0620003
49.006763 -0.2562471 71.266113 8
-10.414296 0.39518487 71.275581 6
-10.273709 0.39154768 71.416412 5.3333335
-9.8170109 0.39147961 71.368675 6
-9.3598042 0.37061173 71.415924 5
-9.0122585 0.35384798 71.324585 5
-8.6328163 0.34663349 71.405655 4.625
-8.1888933 0.32740709 71.357452 4.1666665
-7.7886438 0.32247886 71.389038 4.8571429
-7.3917003 0.30841306 71.425423 4.6666665
-6.9630404 0.29667524 71.411606 4.25
-6.579442 0.27553853 71.35688 4.6363635
-6.190124 0.26856422 71.474861 4.090909
-5.8574481 0.25598466 71.399902 2.8571429
-5.4073935 0.23986261 71.375664 4.1999998
-5.0048628 0.22708121 71.324905 4.3000002
-4.6168962 0.22231171 71.387009 4
-4.2226939 0.20368086 71.362839 4.5
-3.7930918 0.19655772 71.401657 4.2941175
-3.391474 0.19241813 71.391647 4.8000002
-3.0092165 0.1730606 71.395805 4.6666665
-2.5802934 0.17060158 71.433937 4.3846154
-2.1802216 0.15386826 71.409851 3.75
-1.8071221 0.14554237 71.382423 4
-1.3941545 0.13210341 71.385918 4
-0.97840917 0.11617304 71.427681 3.5
-0.59640425 0.10166709 71.378113 4.625
-0.21298581 0.096400328 71.412491 4.909091
0.19392337 0.087060101 71.360443 5
0.62331009 0.07294137 71.417465 4.8571429
1.0236666 0.056515746 71.431381 4.8000002
1.3015245 0.053997021 71.395248 5.3333335
1.822376 0.03013438 71.347084 5.8000002
2.110841 0.025009314 71.375999 5.3333335
2.7010689 0.010806501 71.404884 5.3333335
3.0066867 0.007699728 71.343452 5
3.3193483 0.0058943033 71.484634 6
5.9020996 0.14598624 71.234802 6.8333335
6.1352248 0.21931234 71.274033 7
-28.148001 0.78104383 71.525078 7
-27.867979 0.73728889 71.245941 7
-23.428513 0.73438239 71.466415 7
-20.831963 0.68364894 71.4935 7
-20.740433 0.68453091 71.255478 7
-18.323427 0.61433238 71.537079 7
-16.471659 0.5845598 71.453461 7
-15.360404 0.56385243 71.296692 6
-15.038295 0.54013854 71.415009 6.3333335
-14.682412 0.54062682 71.469292 6
-14.112001 0.52517045 71.341736 6.5
-13.762494 0.64435357 71.386131 6.6666665
-13.4237 0.6500048 71.328575 6.8800001
-13.094321 0.67855763 71.367027 6.8333335
-12.529555 0.58923262 71.411797 6.7692308
-12.22235 0.59478682 71.355423 6.6923075
-11.856008 0.65054256 71.356979 6.8000002
-11.368454 0.43750176 71.412674 5.6666665
-10.975267 0.51468277 71.352074 6
-10.608491 0.58330005 71.437355 6.1052632
-10.228797 0.57350385 71.332985 6.1666665
-33.208641 1.1916193 71.3853 4.5
-33.048847 1.1575813 71.378418 3.0714285
-32.667439 1.1234392 71.349731 2.375
-32.257687 1.1189252 71.382889 0.93939394
-31.798101 1.0480576 71.338783 2.1500001
-31.434057 1.0247531 71.472038 3.6060603
-30.970087 1.02421 71.443855 4.1999998
-30.576336 1.0759137 71.456703 2.8
-30.10955 1.0743872 71.49408 4.25
-29.728363 1.0552117 71.469429 3.1666667
-29.272194 1.1283735 71.411362 3.1611111
-29.175632 1.0980241 71.406494 4.5999999
-28.201288 1.0462124 71.393494 7
-26.378555 0.97713208 71.269836 6
-23.124056 0.87729675 71.42749 6
-22.799166 0.83292639 71.422745 4
-21.864691 0.84406996 71.410088 5.6666665
-21.338364 0.84057033 71.518005 6
-21.111996 0.82720786 71.433121 6
-13.610102 0.80150259 71.218964 7
-13.362075 0.88264656 71.394409 7
-13.051192 0.87030369 71.376488 7
-12.192183 0.88315529 71.417427 7
-11.950917 0.87680966 71.346634 7
-10.521708 0.84959078 71.248993 7
-33.221359 1.4024497 71.424484 4.9666667
-33.181198 1.3429685 71.394829 4.2862744
-29.214813 1.424704 71.445374 4.2880144
-29.198059 1.5463684 71.390335 7.2532501
-28.209894 1.210248 71.374367 7
-33.214996 1.8250636 71.386971 8.0660725
-33.181355 1.7985325 71.378555 7.885417
-29.208893 1.6471561 71.363731 7
-29.128675 1.7093292 71.386665 7.9783926
-33.214676 2.2324045 71.418159 10.274948
-33.179764 2.2171059 71.413361 10.776645
-8.8949261 2.2637463 71.477348 11.442042
-8.6451273 2.322252 71.398544 11.659533
-8.2442799 2.3539522 71.315071 11.365334
-33.222755 2.5847452 71.418167 13.614561
-33.179558 2.5824785 71.361748 13.773746
-11.367523 2.6184087 71.52565 9.5603743
-11.131644 2.6091101 71.48111 9.6713333
-10.562136 2.6900933 71.369728 12.279117
-10.256924 2.6096032 71.431366 11.837803
-9.3310375 2.7130394 71.350182 11.126929
-8.8006248 2.5889792 71.576385 9.0620003
-8.6535988 2.6456254 71.390213 11.087205
-8.2907686 2.4061654 71.368202 12.385876
-33.209919 2.9646103 71.340645 13
-33.178043 2.9521847 71.354713 13.785714
-26.133591 3.1028197 71.493042 9.1754999
-11.819724 3.1737025 71.390358 11.548124
-11.321027 3.0056534 71.475822 10.741333
-11.005382 2.9276569 71.40332 12.064834
-10.655105 2.8825715 71.377235 10.544541
-10.337226 2.8048594 71.428139 11.1
-9.6975727 2.942425 71.22081 10.0375
-9.3484421 3.0109553 71.35022 10.747666
-9.0531864 3.0350382 71.379562 12.425809
-8.6341381 2.8925881 71.436508 11.318376
-7.8698745 2.9188604 71.242935 9.1464996
-33.229858 3.2114363 71.432129 9
-33.181156 3.279815 71.359955 10.2
-26.084347 3.3501849 71.551697 12.0765
-12.405449 3.2972679 71.588593 10.0645
-12.248521 3.3751168 71.451782 11.203899
-11.844108 3.2565942 71.453171 11.5059
